# x y z nx ny nz
2.724000 0.121000 0.339000 -0.074456 -0.942310 0.326356
2.728000 0.117000 0.331000 -0.073583 -0.942087 0.327197
2.733000 0.114000 0.323000 -0.073583 -0.942087 0.327197
2.736000 0.111000 0.316000 -0.062206 -0.945738 0.318920
2.737000 0.108000 0.307000 -0.042367 -0.944558 0.325601
2.749000 0.105000 0.300000 0.045603 0.946177 -0.320420
2.752000 0.102000 0.292000 0.054491 0.949587 -0.308732
2.753000 0.099000 0.284000 0.014340 0.945750 -0.324579
2.760000 0.096000 0.276000 -0.016693 0.940862 -0.338380
2.768000 0.093000 0.269000 0.070833 0.952126 -0.297386
2.769000 0.090000 0.260000 0.043751 0.950657 -0.307143
2.773000 0.087000 0.252000 0.083145 0.952317 -0.293562
2.776000 0.084000 0.244000 -0.033721 0.936720 -0.348451
2.777000 0.081000 0.236000 -0.046665 0.934382 -0.353203
2.785000 0.078000 0.228000 -0.040600 0.936138 -0.349282
2.792000 0.075000 0.220000 -0.049875 0.935198 -0.350595
2.810000 0.072000 0.212000 0.035312 -0.938708 0.342901
2.811000 0.069000 0.204000 0.602788 -0.694335 0.393124
2.804000 0.066000 0.195000 0.603330 -0.710295 0.362594
2.803000 0.063000 0.186000 0.568360 -0.765124 0.302575
2.801000 0.060000 0.178000 0.626853 -0.747731 0.218983
2.797000 0.057000 0.169000 0.710001 -0.695051 0.113152
2.793000 0.053000 0.160000 0.761803 -0.647523 0.019257
2.788000 0.050000 0.151000 -0.703943 0.710015 0.018534
2.787000 0.047000 0.143000 -0.709706 0.704200 0.020493
2.778000 0.044000 0.134000 -0.712125 0.701741 0.020924
2.778000 0.041000 0.125000 0.727055 -0.686200 -0.022807
2.772000 0.038000 0.116000 0.729585 -0.678438 -0.086178
2.774000 0.035000 0.108000 -0.706285 0.687278 0.169738
2.769000 0.032000 0.099000 -0.693606 0.693455 0.195014
2.722000 0.029000 0.089000 0.719145 0.049091 -0.693124
2.651000 0.026000 0.079000 0.434163 0.557278 -0.707774
2.660000 0.023000 0.071000 0.444341 0.520749 -0.728959
2.668000 0.020000 0.063000 0.399729 0.597260 -0.695339
2.671000 0.018000 0.055000 -0.400358 -0.624895 0.670238
2.641000 0.015000 0.046000 -0.583222 -0.558456 0.589897
2.635000 0.012000 0.038000 -0.688735 -0.712587 0.133659
2.638000 0.009000 0.030000 0.703508 0.689923 -0.170540
2.640000 0.007000 0.022000 0.707679 0.697177 -0.114607
2.638000 0.004000 0.013000 -0.640143 -0.729100 0.242137
2.640000 0.002000 0.005000 -0.391611 -0.891645 0.227178
2.647000 0.000000 -0.002000 0.394332 0.918147 0.038847
2.644000 -0.003000 -0.010000 -0.564977 -0.823164 0.056578
2.644000 -0.005000 -0.018000 -0.557541 -0.829764 0.025302
2.650000 -0.008000 -0.027000 -0.631964 -0.774831 -0.016057
2.651000 -0.010000 -0.035000 -0.622383 -0.782072 0.031678
2.656000 -0.013000 -0.043000 -0.597785 -0.800511 0.042829
2.656000 -0.015000 -0.051000 -0.615556 -0.783776 0.082375
2.663000 -0.018000 -0.060000 -0.629940 -0.768196 0.114239
2.662000 -0.020000 -0.068000 -0.624039 -0.774397 0.104330
2.662000 -0.023000 -0.076000 -0.614810 -0.782094 0.101678
2.662000 -0.025000 -0.084000 -0.604127 -0.793053 0.078088
2.663000 -0.028000 -0.093000 -0.608807 -0.791435 0.054631
2.789000 -0.032000 -0.106000 -0.224855 -0.352647 -0.908340
2.920000 -0.036000 -0.120000 0.660038 -0.081512 0.746797
2.926000 -0.038000 -0.129000 0.753025 0.105701 0.649446
2.940000 -0.041000 -0.139000 0.916766 0.287527 0.277251
2.936000 -0.044000 -0.148000 0.955444 0.250577 0.156008
2.945000 -0.047000 -0.158000 0.955444 0.250577 0.156008
2.940000 -0.049000 -0.167000 0.944068 0.301130 0.134371
2.946000 -0.052000 -0.176000 0.920458 0.384965 0.067522
2.948000 -0.054000 -0.186000 0.885115 0.464894 0.021075
2.950000 -0.057000 -0.195000 0.809617 0.586052 0.032601
2.953000 -0.060000 -0.204000 0.787125 0.615176 0.044645
2.954000 -0.062000 -0.214000 0.779426 0.626447 0.007693
2.960000 -0.065000 -0.223000 0.760684 0.649109 0.004227
2.965000 -0.067000 -0.233000 0.742822 0.669258 -0.017583
2.967000 -0.070000 -0.242000 0.729473 0.683530 -0.025600
2.972000 -0.073000 -0.252000 0.707615 0.706204 -0.023615
2.972000 -0.075000 -0.262000 -0.691600 -0.722090 0.016605
2.978000 -0.078000 -0.271000 -0.668597 -0.743539 0.011310
2.980000 -0.080000 -0.281000 -0.670748 -0.741669 0.005007
2.978000 -0.083000 -0.290000 -0.669342 -0.742920 0.007147
2.982000 -0.085000 -0.300000 -0.657419 -0.753526 0.000078
2.986000 -0.088000 -0.310000 -0.646720 -0.762723 -0.002469
2.990000 -0.090000 -0.320000 -0.630656 -0.776029 0.007229
2.997000 -0.093000 -0.330000 -0.640714 -0.767765 -0.004748
2.994000 -0.095000 -0.339000 -0.638611 -0.769308 -0.018466
3.002000 -0.098000 -0.350000 -0.638643 -0.769282 -0.018419
2.999000 -0.100000 -0.359000 -0.651670 -0.758006 -0.027450
3.011000 -0.102000 -0.370000 -0.639815 -0.768238 -0.021156
3.014000 -0.105000 -0.380000 -0.643132 -0.765588 -0.015999
3.012000 -0.107000 -0.389000 -0.648068 -0.761333 -0.019463
3.014000 -0.109000 -0.399000 -0.648339 -0.761180 -0.016197
3.023000 -0.112000 -0.410000 0.624228 0.781141 0.012543
3.030000 -0.115000 -0.421000 -0.635717 -0.771760 -0.015830
3.031000 -0.117000 -0.430000 -0.639254 -0.768781 -0.018160
3.032000 -0.119000 -0.440000 -0.640765 -0.767297 -0.025991
3.034000 -0.121000 -0.450000 0.642039 0.766189 0.027195
3.035000 -0.123000 -0.460000 0.655049 0.755143 0.025890
3.036000 -0.126000 -0.470000 0.046242 0.977856 -0.204104
3.041000 -0.128000 -0.481000 0.055348 0.978225 -0.200029
3.044000 -0.130000 -0.491000 0.052507 0.978449 -0.199700
3.051000 -0.133000 -0.502000 -0.003785 0.977113 -0.212686
3.054000 -0.135000 -0.512000 0.008649 0.978206 -0.207455
3.056000 -0.137000 -0.522000 0.042106 0.979490 -0.197045
3.062000 -0.139000 -0.533000 0.060603 0.979655 -0.191319
3.061000 -0.141000 -0.543000 0.072080 0.979824 -0.186411
3.062000 -0.144000 -0.553000 0.075696 0.980170 -0.183128
3.065000 -0.146000 -0.563000 0.065968 0.980797 -0.183536
3.069000 -0.148000 -0.574000 0.067706 0.980964 -0.182005
3.070000 -0.150000 -0.584000 0.041693 0.981568 -0.186511
3.076000 -0.152000 -0.595000 -0.041961 0.978425 -0.202295
3.075000 -0.154000 -0.605000 0.034723 0.982255 -0.184309
3.077000 -0.156000 -0.616000 -0.023672 -0.982316 0.185728
3.075000 -0.158000 -0.625000 -0.021794 -0.982498 0.184992
3.082000 -0.160000 -0.637000 -0.020694 -0.982835 0.183323
3.085000 -0.162000 -0.648000 -0.017566 -0.983244 0.181446
3.085000 -0.164000 -0.658000 -0.017336 -0.983301 0.181159
3.090000 -0.166000 -0.669000 -0.017245 -0.983326 0.181030
3.091000 -0.168000 -0.679000 -0.016935 -0.983433 0.180479
3.092000 -0.170000 -0.689000 0.016784 0.983486 -0.180205
3.090000 -0.171000 -0.699000 0.016402 0.983689 -0.179126
3.048000 -0.171000 -0.700000 0.560771 0.444683 -0.698422
3.003000 -0.170000 -0.699000 0.216109 0.127782 -0.967971
2.959000 -0.169000 -0.699000 -0.053745 -0.034228 0.997968
2.918000 -0.168000 -0.699000 0.004455 0.195119 0.980769
2.879000 -0.168000 -0.699000 0.011155 0.187497 0.982202
2.840000 -0.167000 -0.699000 0.008636 0.184076 0.982874
2.801000 -0.166000 -0.698000 0.005047 0.177659 0.984079
2.766000 -0.165000 -0.699000 0.003438 0.177890 0.984044
2.729000 -0.164000 -0.699000 -0.002321 0.180447 0.983582
2.694000 -0.164000 -0.699000 0.006282 0.187596 0.982226
2.662000 -0.163000 -0.699000 0.007549 0.197973 0.980178
2.620000 -0.162000 -0.697000 -0.013617 -0.206500 -0.978352
2.592000 -0.161000 -0.698000 -0.015433 -0.209225 -0.977746
2.559000 -0.160000 -0.698000 -0.005427 -0.215230 -0.976548
2.525000 -0.159000 -0.697000 -0.000739 -0.215043 -0.976604
2.494000 -0.158000 -0.697000 0.000590 -0.218035 -0.975941
2.468000 -0.158000 -0.698000 0.001330 -0.225949 -0.974138
2.440000 -0.157000 -0.698000 -0.001389 -0.234591 -0.972093
2.411000 -0.156000 -0.698000 -0.008361 -0.233072 -0.972424
2.380000 -0.155000 -0.697000 -0.016081 -0.240442 -0.970530
2.354000 -0.155000 -0.697000 -0.019473 -0.247449 -0.968705
2.331000 -0.154000 -0.698000 -0.014109 -0.256166 -0.966530
2.295000 -0.152000 -0.695000 -0.011841 -0.264095 -0.964424
2.270000 -0.152000 -0.695000 -0.013243 -0.269014 -0.963045
2.249000 -0.151000 -0.696000 -0.013273 -0.283472 -0.958889
2.222000 -0.150000 -0.695000 -0.006259 -0.294235 -0.955713
2.200000 -0.149000 -0.696000 -0.010269 -0.299554 -0.954024
2.174000 -0.148000 -0.695000 -0.011351 -0.303345 -0.952813
2.153000 -0.148000 -0.695000 -0.012310 -0.302563 -0.953050
2.130000 -0.147000 -0.695000 -0.002836 -0.317733 -0.948176
2.107000 -0.146000 -0.695000 0.020059 -0.363151 -0.931514
2.088000 -0.145000 -0.696000 0.015794 -0.395867 -0.918172
2.063000 -0.144000 -0.694000 0.018191 -0.437902 -0.898839
2.045000 -0.143000 -0.695000 0.022185 -0.460330 -0.887470
2.025000 -0.142000 -0.695000 0.011792 -0.510744 -0.859652
1.999000 -0.141000 -0.693000 0.005302 -0.548721 -0.835988
1.984000 -0.140000 -0.694000 -0.007508 -0.582214 -0.813001
1.969000 -0.140000 -0.696000 -0.006927 -0.581583 -0.813458
1.945000 -0.139000 -0.694000 -0.003668 -0.665136 -0.746713
1.928000 -0.138000 -0.695000 0.000784 -0.688129 -0.725588
1.910000 -0.137000 -0.695000 0.020245 -0.672294 -0.740007
1.890000 -0.136000 -0.694000 0.019561 -0.696966 -0.716837
1.882000 -0.136000 -0.697000 -0.022161 0.718115 0.695571
1.869000 -0.135000 -0.699000 -0.033086 0.744383 0.666933
1.859000 -0.135000 -0.701000 -0.030421 0.768170 0.639523
1.845000 -0.134000 -0.702000 -0.030055 0.815138 0.578487
1.828000 -0.133000 -0.703000 -0.020378 0.895437 0.444721
1.810000 -0.132000 -0.701000 -0.022694 0.959766 0.279882
1.794000 -0.131000 -0.701000 -0.009828 0.990522 0.136999
1.779000 -0.130000 -0.702000 -0.004311 0.899192 -0.437534
1.762000 -0.129000 -0.701000 -0.003367 0.818296 -0.574788
1.746000 -0.128000 -0.701000 -0.007535 0.747288 -0.664458
1.734000 -0.127000 -0.702000 -0.012851 0.685536 -0.727925
1.720000 -0.126000 -0.702000 -0.015882 0.629999 -0.776434
1.705000 -0.125000 -0.702000 -0.020066 0.578968 -0.815103
1.691000 -0.124000 -0.702000 -0.026751 0.533249 -0.845535
1.665000 -0.123000 -0.697000 -0.022767 0.430705 -0.902206
1.654000 -0.122000 -0.698000 -0.028013 0.424597 -0.904949
1.643000 -0.121000 -0.698000 -0.031628 0.393080 -0.918960
1.631000 -0.120000 -0.699000 -0.029115 0.381632 -0.923856
1.617000 -0.119000 -0.698000 -0.020741 0.347229 -0.937551
1.602000 -0.118000 -0.698000 -0.020446 0.332644 -0.942831
1.590000 -0.117000 -0.698000 -0.006999 0.308792 -0.951104
1.575000 -0.116000 -0.697000 -0.003524 0.284871 -0.958559
1.567000 -0.115000 -0.698000 0.003129 0.276329 -0.961058
1.549000 -0.113000 -0.695000 -0.006473 0.249203 -0.968430
1.538000 -0.113000 -0.696000 -0.007316 0.230791 -0.972976
1.532000 -0.112000 -0.698000 -0.006621 0.224320 -0.974493
1.524000 -0.111000 -0.700000 -0.007222 0.218519 -0.975806
1.505000 -0.110000 -0.696000 -0.008359 0.195672 -0.980634
1.496000 -0.109000 -0.697000 -0.000253 0.185536 -0.982637
1.487000 -0.108000 -0.698000 -0.000945 0.180226 -0.983625
1.477000 -0.107000 -0.698000 0.004037 0.173261 -0.984868
1.465000 -0.106000 -0.697000 0.009262 0.155323 -0.987820
1.455000 -0.105000 -0.698000 0.014446 0.145528 -0.989249
1.444000 -0.103000 -0.697000 0.018898 0.141371 -0.989776
1.436000 -0.103000 -0.698000 0.033304 0.139185 -0.989706
1.425000 -0.101000 -0.697000 -0.038510 -0.133461 0.990306
1.418000 -0.101000 -0.699000 0.048177 0.127908 -0.990615
1.407000 -0.099000 -0.698000 -0.047129 -0.124985 0.991039
1.402000 -0.099000 -0.700000 -0.041278 -0.115294 0.992473
1.393000 -0.098000 -0.700000 -0.043171 -0.106174 0.993410
1.381000 -0.096000 -0.699000 -0.048726 -0.091429 0.994619
1.376000 -0.095000 -0.701000 -0.048726 -0.091429 0.994619
1.365000 -0.094000 -0.699000 -0.049642 -0.083847 0.995241
1.361000 -0.093000 -0.702000 -0.049815 -0.080333 0.995523
1.353000 -0.092000 -0.702000 0.039744 0.078735 -0.996103
1.344000 -0.091000 -0.702000 0.033228 0.067940 -0.997136
1.340000 -0.090000 -0.704000 -0.034594 -0.061752 0.997492
1.327000 -0.089000 -0.702000 0.028456 0.055953 -0.998028
1.316000 -0.088000 -0.700000 0.025665 0.050442 -0.998397
1.318000 -0.087000 -0.705000 0.026820 0.058134 -0.997948
1.311000 -0.086000 -0.706000 0.021375 0.055723 -0.998217
1.304000 -0.085000 -0.706000 0.020202 0.038286 -0.999063
1.289000 -0.083000 -0.702000 0.015305 0.032769 -0.999346
1.285000 -0.082000 -0.704000 0.154895 0.981240 0.114781
1.270000 -0.081000 -0.700000 0.160262 0.970271 0.181355
1.267000 -0.080000 -0.702000 0.160008 0.963137 0.216252
1.257000 -0.078000 -0.701000 0.160850 0.936344 0.312068
1.250000 -0.077000 -0.701000 0.163520 0.929940 0.329353
1.250000 -0.076000 -0.704000 0.163520 0.929940 0.329353
1.243000 -0.075000 -0.704000 0.167967 0.935365 0.311256
1.232000 -0.074000 -0.702000 0.170058 0.899530 0.402401
1.230000 -0.073000 -0.704000 0.170058 0.899530 0.402401
1.219000 -0.071000 -0.702000 0.173625 0.881017 0.440073
1.216000 -0.070000 -0.703000 0.176223 0.880258 0.440557
1.213000 -0.069000 -0.706000 0.176223 0.880258 0.440557
1.201000 -0.068000 -0.702000 0.183867 0.902845 0.388669
1.197000 -0.067000 -0.703000 0.196890 0.922491 0.332032
1.191000 -0.065000 -0.703000 0.196890 0.922491 0.332032
1.184000 -0.064000 -0.703000 0.187565 0.850346 0.491662
1.181000 -0.063000 -0.704000 0.187565 0.850346 0.491662
1.172000 -0.062000 -0.702000 0.166980 0.726083 0.667024
1.171000 -0.061000 -0.705000 0.166980 0.726083 0.667024
1.162000 -0.059000 -0.703000 0.178159 0.747975 0.639369
1.158000 -0.058000 -0.703000 0.178159 0.747975 0.639369
1.149000 -0.057000 -0.701000 0.187726 0.752910 0.630781
1.145000 -0.055000 -0.702000 0.189649 0.746450 0.637844
1.145000 -0.054000 -0.705000 0.189649 0.746450 0.637844
1.142000 -0.053000 -0.706000 0.209023 0.791498 0.574317
1.129000 -0.052000 -0.701000 0.227286 0.817614 0.529008
1.129000 -0.050000 -0.704000 0.229513 0.806393 0.545027
1.125000 -0.049000 -0.704000 0.232830 0.799238 0.554083
1.118000 -0.048000 -0.703000 0.221963 0.748729 0.624610
1.114000 -0.047000 -0.703000 0.235970 0.773199 0.588627
1.111000 -0.045000 -0.704000 0.234318 0.757292 0.609593
1.106000 -0.044000 -0.703000 0.253424 0.792356 0.554931
1.105000 -0.043000 -0.705000 0.253424 0.792356 0.554931
1.100000 -0.041000 -0.705000 0.273466 0.826732 0.491661
1.096000 -0.040000 -0.705000 0.290976 0.852960 0.433350
1.093000 -0.039000 -0.705000 0.290976 0.852960 0.433350
1.088000 -0.038000 -0.705000 0.315363 0.857105 0.407329
1.081000 -0.036000 -0.702000 0.337102 0.887405 0.314443
1.083000 -0.035000 -0.706000 0.337102 0.887405 0.314443
1.078000 -0.034000 -0.706000 0.326885 0.842311 0.428553
1.070000 -0.032000 -0.702000 0.353687 0.857986 0.372512
1.069000 -0.031000 -0.704000 0.299461 0.699545 0.648814
1.065000 -0.029000 -0.703000 0.301726 0.669667 0.678607
1.063000 -0.028000 -0.704000 0.301726 0.669667 0.678607
1.062000 -0.027000 -0.706000 0.301726 0.669667 0.678607
1.057000 -0.025000 -0.704000 -0.289624 -0.597768 -0.747523
1.058000 -0.024000 -0.707000 -0.289624 -0.597768 -0.747523
1.057000 -0.023000 -0.709000 -0.289624 -0.597768 -0.747523
1.047000 -0.021000 -0.703000 -0.318981 -0.590748 -0.741126
1.043000 -0.020000 -0.703000 -0.322429 -0.586616 -0.742914
1.041000 -0.019000 -0.703000 -0.330457 -0.575203 -0.748291
1.036000 -0.017000 -0.702000 -0.323324 -0.547967 -0.771488
1.036000 -0.016000 -0.703000 -0.323324 -0.547967 -0.771488
1.034000 -0.015000 -0.704000 -0.311129 -0.485178 -0.817191
1.033000 -0.013000 -0.704000 -0.311129 -0.485178 -0.817191
1.031000 -0.012000 -0.704000 -0.304863 -0.433716 -0.847908
1.027000 -0.010000 -0.703000 -0.298119 -0.412224 -0.860928
1.025000 -0.009000 -0.703000 -0.298859 -0.378283 -0.876119
1.022000 -0.008000 -0.703000 -0.186064 -0.248524 -0.950587
1.023000 -0.006000 -0.705000 -0.186064 -0.248524 -0.950587
1.025000 -0.005000 -0.707000 -0.186064 -0.248524 -0.950587
1.019000 -0.003000 -0.704000 -0.206109 -0.253342 -0.945165
1.017000 -0.002000 -0.704000 -0.208202 -0.230707 -0.950487
1.015000 -0.001000 -0.704000 -0.208202 -0.230707 -0.950487
1.012000 0.000000 -0.703000 -0.207310 -0.202923 -0.956998
1.011000 0.001000 -0.703000 -0.214359 -0.191065 -0.957885
1.012000 0.003000 -0.705000 -0.214359 -0.191065 -0.957885
1.014000 0.004000 -0.707000 -0.200055 -0.189055 -0.961372
1.006000 0.005000 -0.703000 -0.232245 -0.175665 -0.956663
1.004000 0.007000 -0.702000 -0.268113 -0.162473 -0.949588
1.006000 0.008000 -0.704000 -0.268113 -0.162473 -0.949588
1.007000 0.010000 -0.705000 -0.268113 -0.162473 -0.949588
1.005000 0.011000 -0.704000 -0.286432 -0.151121 -0.946107
1.005000 0.012000 -0.705000 -0.291323 -0.139405 -0.946413
1.004000 0.014000 -0.705000 -0.291323 -0.139405 -0.946413
1.000000 0.015000 -0.703000 -0.317562 -0.124572 -0.940019
1.002000 0.017000 -0.704000 -0.328955 -0.111569 -0.937732
1.000000 0.018000 -0.703000 -0.338998 -0.092696 -0.936209
1.004000 0.020000 -0.706000 -0.338998 -0.092696 -0.936209
1.001000 0.021000 -0.704000 -0.339844 -0.072599 -0.937676
1.003000 0.022000 -0.706000 -0.340804 -0.050788 -0.938762
1.003000 0.024000 -0.706000 -0.362777 -0.019563 -0.931671
0.998000 0.025000 -0.702000 -0.362777 -0.019563 -0.931671
1.003000 0.027000 -0.706000 -0.362777 -0.019563 -0.931671
1.003000 0.028000 -0.706000 -0.338176 -0.002483 -0.941079
0.999000 0.029000 -0.703000 -0.338176 -0.002483 -0.941079
0.999000 0.031000 -0.703000 -0.323580 0.013592 -0.946103
1.005000 0.032000 -0.707000 -0.319412 0.026421 -0.947247
1.008000 0.034000 -0.709000 -0.312136 0.058151 -0.948256
1.000000 0.035000 -0.703000 -0.312582 0.038747 -0.949100
1.005000 0.037000 -0.706000 -0.314638 0.072097 -0.946470
1.001000 0.038000 -0.703000 -0.305920 0.076044 -0.949015
1.006000 0.039000 -0.706000 -0.328465 0.123630 -0.936390
1.004000 0.041000 -0.704000 -0.328465 0.123630 -0.936390
1.006000 0.042000 -0.705000 -0.325273 0.144083 -0.934579
1.007000 0.044000 -0.705000 -0.310079 0.158547 -0.937398
1.009000 0.045000 -0.706000 -0.307328 0.173857 -0.935587
1.006000 0.046000 -0.703000 -0.310079 0.158547 -0.937398
1.012000 0.048000 -0.706000 -0.312592 0.196322 -0.929378
1.014000 0.049000 -0.707000 -0.275196 0.188249 -0.942778
1.018000 0.051000 -0.708000 -0.282320 0.207348 -0.936644
1.018000 0.052000 -0.707000 -0.291345 0.226351 -0.929453
1.018000 0.054000 -0.706000 -0.305027 0.246407 -0.919914
1.020000 0.055000 -0.707000 -0.306240 0.263260 -0.914829
1.019000 0.056000 -0.705000 -0.306240 0.263260 -0.914829
1.018000 0.058000 -0.703000 -0.308811 0.290802 -0.905577
1.023000 0.059000 -0.705000 -0.294263 0.311745 -0.903452
1.027000 0.061000 -0.706000 -0.307832 0.348693 -0.885241
1.027000 0.062000 -0.705000 -0.307832 0.348693 -0.885241
1.030000 0.064000 -0.706000 -0.288208 0.345254 -0.893160
1.035000 0.065000 -0.707000 -0.292774 0.393073 -0.871652
1.037000 0.067000 -0.707000 -0.318414 0.449817 -0.834432
1.045000 0.068000 -0.711000 -0.303618 0.484482 -0.820423
1.044000 0.069000 -0.709000 -0.303618 0.484482 -0.820423
1.046000 0.071000 -0.708000 -0.326383 0.552634 -0.766857
1.050000 0.072000 -0.709000 -0.330612 0.583770 -0.741558
1.048000 0.073000 -0.706000 -0.330612 0.583770 -0.741558
1.051000 0.075000 -0.706000 -0.330612 0.583770 -0.741558
1.053000 0.076000 -0.706000 -0.337378 0.614393 -0.713231
1.059000 0.078000 -0.708000 -0.406326 0.841567 -0.355898
1.063000 0.079000 -0.709000 -0.402676 0.847830 -0.345016
1.066000 0.081000 -0.708000 -0.364039 0.789350 -0.494370
1.072000 0.082000 -0.710000 -0.345020 0.797150 -0.495493
1.068000 0.083000 -0.706000 -0.356439 0.799726 -0.483104
1.077000 0.085000 -0.709000 -0.334652 0.797561 -0.501901
1.081000 0.086000 -0.710000 -0.260844 0.673505 -0.691629
1.079000 0.087000 -0.706000 -0.292055 0.724085 -0.624824
1.083000 0.089000 -0.706000 -0.260844 0.673505 -0.691629
1.088000 0.090000 -0.707000 -0.254921 0.679778 -0.687690
1.094000 0.092000 -0.709000 -0.236055 0.650601 -0.721801
1.097000 0.093000 -0.708000 -0.234020 0.657310 -0.716364
1.098000 0.094000 -0.706000 -0.234020 0.657310 -0.716364
1.099000 0.095000 -0.705000 -0.239503 0.681120 -0.691892
1.106000 0.097000 -0.706000 -0.220479 0.665975 -0.712647
1.114000 0.098000 -0.708000 -0.224001 0.709914 -0.667717
1.119000 0.100000 -0.709000 -0.215788 0.709235 -0.671135
1.119000 0.101000 -0.706000 -0.215788 0.709235 -0.671135
1.124000 0.102000 -0.706000 -0.216171 0.719661 -0.659817
1.130000 0.103000 -0.707000 -0.216448 0.734362 -0.643322
1.133000 0.104000 -0.706000 -0.213282 0.738503 -0.639627
1.137000 0.106000 -0.706000 -0.016131 0.072181 -0.997261
1.143000 0.107000 -0.707000 -0.017555 0.069449 -0.997431
1.149000 0.109000 -0.707000 -0.015817 0.061360 -0.997990
1.157000 0.110000 -0.709000 -0.022576 0.063931 -0.997699
1.157000 0.111000 -0.706000 -0.021490 0.064331 -0.997697
1.164000 0.112000 -0.707000 -0.017020 0.068116 -0.997532
1.169000 0.114000 -0.707000 -0.017203 0.067726 -0.997556
1.174000 0.115000 -0.707000 -0.015757 0.066964 -0.997631
1.177000 0.116000 -0.705000 -0.014461 0.068837 -0.997523
1.189000 0.118000 -0.709000 -0.008865 0.079404 -0.996803
1.192000 0.119000 -0.707000 -0.007281 0.081684 -0.996632
1.197000 0.120000 -0.707000 0.001868 0.083256 -0.996526
1.201000 0.121000 -0.706000 0.003679 0.084235 -0.996439
1.213000 0.123000 -0.709000 -0.000639 0.091149 -0.995837
1.213000 0.124000 -0.705000 -0.000639 0.091149 -0.995837
1.223000 0.125000 -0.707000 -0.006744 0.110597 -0.993842
1.227000 0.126000 -0.706000 -0.003848 0.109076 -0.994026
1.236000 0.128000 -0.708000 0.003326 0.128800 -0.991665
1.242000 0.129000 -0.707000 0.007358 0.134712 -0.990857
1.245000 0.130000 -0.705000 0.007358 0.134712 -0.990857
1.256000 0.131000 -0.707000 0.003236 0.154081 -0.988053
1.263000 0.133000 -0.708000 -0.001905 0.159957 -0.987122
1.269000 0.134000 -0.707000 0.003435 0.168184 -0.985750
1.273000 0.135000 -0.705000 -0.003700 0.171197 -0.985230
1.280000 0.136000 -0.705000 0.012100 0.139235 -0.990185
1.287000 0.137000 -0.705000 0.028018 0.064406 -0.997530
1.304000 0.139000 -0.710000 0.000610 -0.251377 -0.967889
1.307000 0.140000 -0.708000 0.000610 -0.251377 -0.967889
1.313000 0.141000 -0.707000 -0.003567 -0.299742 -0.954014
1.322000 0.142000 -0.707000 0.007638 -0.310457 -0.950557
1.328000 0.143000 -0.706000 -0.000898 -0.310637 -0.950528
1.341000 0.145000 -0.709000 0.007760 -0.276082 -0.961103
1.348000 0.146000 -0.709000 0.021489 -0.232268 -0.972414
1.355000 0.147000 -0.707000 0.024613 -0.230306 -0.972807
1.361000 0.148000 -0.706000 0.024613 -0.230306 -0.972807
1.371000 0.149000 -0.707000 0.019471 -0.181922 -0.983120
1.372000 0.149000 -0.703000 0.019471 -0.181922 -0.983120
1.385000 0.151000 -0.705000 0.023826 -0.159283 -0.986945
1.396000 0.152000 -0.706000 0.025786 -0.149044 -0.988494
1.406000 0.154000 -0.707000 0.022369 -0.123474 -0.992096
1.407000 0.154000 -0.702000 0.022369 -0.123474 -0.992096
1.422000 0.156000 -0.705000 0.012546 -0.109317 -0.993928
1.426000 0.156000 -0.702000 0.008510 -0.107387 -0.994181
1.436000 0.157000 -0.702000 0.011567 -0.098033 -0.995116
1.451000 0.159000 -0.705000 0.011038 -0.097028 -0.995220
1.461000 0.160000 -0.705000 0.006141 -0.095347 -0.995425
1.476000 0.162000 -0.707000 0.010188 -0.093302 -0.995586
1.478000 0.162000 -0.703000 0.010188 -0.093302 -0.995586
1.493000 0.163000 -0.705000 0.005750 -0.090489 -0.995881
1.498000 0.164000 -0.703000 0.005750 -0.090489 -0.995881
1.508000 0.165000 -0.702000 0.008288 -0.089604 -0.995943
1.523000 0.166000 -0.704000 0.003745 -0.089265 -0.996001
1.540000 0.168000 -0.707000 0.001551 -0.096476 -0.995334
1.543000 0.168000 -0.703000 0.007104 -0.089985 -0.995918
1.562000 0.170000 -0.707000 0.002893 -0.095273 -0.995447
1.571000 0.171000 -0.705000 0.002096 -0.095923 -0.995387
1.576000 0.171000 -0.702000 0.000146 -0.093753 -0.995595
1.589000 0.172000 -0.703000 -0.000178 -0.096932 -0.995291
1.611000 0.174000 -0.707000 0.000049 0.101045 0.994882
1.624000 0.176000 -0.707000 0.006743 0.097321 0.995230
1.640000 0.177000 -0.708000 0.010205 0.098625 0.995072
1.634000 0.176000 -0.700000 0.005118 0.099977 0.994977
1.660000 0.178000 -0.706000 0.011492 0.110117 0.993852
1.676000 0.180000 -0.707000 0.013893 0.116075 0.993143
1.689000 0.181000 -0.706000 0.010312 0.118338 0.992920
1.704000 0.182000 -0.707000 0.015683 0.119458 0.992715
1.721000 0.183000 -0.708000 0.019228 0.117618 0.992873
1.734000 0.184000 -0.708000 0.004526 0.126643 0.991938
1.751000 0.185000 -0.709000 0.004487 0.123022 0.992394
1.765000 0.186000 -0.709000 -0.003455 -0.117167 -0.993106
1.791000 0.188000 -0.713000 -0.064673 0.997905 -0.001429
1.792000 0.188000 -0.707000 -0.064673 0.997905 -0.001429
1.814000 0.189000 -0.710000 -0.064464 0.997906 -0.005217
1.823000 0.190000 -0.707000 -0.063725 0.997877 -0.013411
1.839000 0.191000 -0.707000 -0.063052 0.997764 -0.022182
1.862000 0.192000 -0.710000 -0.061935 0.997829 -0.022407
1.873000 0.193000 -0.707000 -0.059538 0.998222 0.002793
1.890000 0.194000 -0.707000 -0.057139 0.995773 0.071912
1.923000 0.196000 -0.713000 -0.053086 0.993238 0.103245
1.939000 0.197000 -0.713000 -0.053216 0.993162 0.103908
1.958000 0.198000 -0.713000 -0.052720 0.992927 0.106378
1.966000 0.198000 -0.709000 -0.048651 0.992932 0.108254
1.995000 0.200000 -0.713000 -0.043045 0.995726 0.081709
1.982000 0.198000 -0.701000 -0.047711 0.993567 0.102702
2.001000 0.199000 -0.701000 -0.043045 0.995726 0.081709
2.021000 0.200000 -0.702000 -0.041764 0.996271 0.075498
2.041000 0.201000 -0.702000 -0.043049 0.993761 0.102892
2.060000 0.201000 -0.701000 -0.042146 0.992849 0.111686
2.082000 0.202000 -0.702000 -0.042804 0.990566 0.130180
2.103000 0.203000 -0.702000 -0.033960 0.898487 0.437686
2.128000 0.205000 -0.703000 -0.032725 0.892173 0.450508
2.147000 0.205000 -0.702000 -0.022501 0.791731 0.610455
2.175000 0.207000 -0.704000 -0.020537 0.775129 0.631470
2.201000 0.208000 -0.705000 -0.029689 0.906754 0.420612
2.224000 0.209000 -0.705000 -0.030212 0.939915 0.340070
2.246000 0.209000 -0.705000 -0.031392 0.924846 0.379045
2.272000 0.210000 -0.705000 0.011441 -0.103467 0.994567
2.294000 0.211000 -0.704000 0.010502 -0.107658 0.994132
2.326000 0.213000 -0.706000 0.018883 -0.107594 0.994016
2.351000 0.213000 -0.706000 0.020615 -0.105213 0.994236
2.378000 0.214000 -0.706000 0.021199 -0.103839 0.994368
2.406000 0.215000 -0.707000 0.015439 -0.115032 0.993242
2.435000 0.216000 -0.707000 0.015318 -0.122122 0.992397
2.466000 0.217000 -0.708000 0.012509 -0.123076 0.992318
2.495000 0.218000 -0.708000 0.008352 -0.122450 0.992439
2.525000 0.219000 -0.708000 0.006725 -0.123473 0.992325
2.552000 0.220000 -0.707000 0.002703 -0.124304 0.992241
2.586000 0.221000 -0.708000 -0.003416 0.127146 -0.991878
2.616000 0.222000 -0.708000 0.003046 0.136409 -0.990648
2.647000 0.222000 -0.708000 0.003476 0.140474 -0.990078
2.681000 0.223000 -0.708000 0.004962 0.151563 -0.988435
2.714000 0.224000 -0.707000 -0.003532 0.162626 -0.986681
2.751000 0.225000 -0.708000 0.003081 -0.169461 0.985532
2.788000 0.226000 -0.709000 0.004150 -0.178221 0.983982
2.820000 0.226000 -0.708000 0.004077 0.178327 -0.983963
2.859000 0.227000 -0.708000 0.002501 0.186745 -0.982405
2.895000 0.228000 -0.707000 -0.010320 0.183107 -0.983039
2.936000 0.229000 -0.708000 -0.018319 0.181644 -0.983194
2.981000 0.230000 -0.709000 -0.021120 0.195280 -0.980520
3.025000 0.231000 -0.710000 -0.013629 0.205481 -0.978566
3.072000 0.232000 -0.711000 0.058233 -0.606354 -0.793060
3.118000 0.233000 -0.711000 0.407787 -0.744235 -0.528984
3.130000 0.232000 -0.704000 0.487806 -0.759191 -0.430900
3.130000 0.229000 -0.694000 0.494248 -0.780325 -0.383160
3.133000 0.227000 -0.684000 0.503547 -0.787009 -0.356452
3.130000 0.224000 -0.673000 0.502971 -0.801090 -0.324460
3.125000 0.221000 -0.662000 0.502971 -0.801090 -0.324460
3.123000 0.218000 -0.652000 0.608356 -0.764321 -0.213816
3.123000 0.215000 -0.642000 0.592905 -0.778556 -0.205704
3.117000 0.212000 -0.631000 0.667064 -0.738353 -0.099299
3.119000 0.210000 -0.621000 0.676488 -0.731676 -0.083751
3.116000 0.207000 -0.611000 0.676554 -0.732233 -0.078163
3.112000 0.204000 -0.600000 0.659985 -0.745947 -0.089341
3.110000 0.201000 -0.589000 0.650606 -0.753130 -0.097509
3.110000 0.198000 -0.579000 0.642268 -0.760575 -0.094962
3.104000 0.195000 -0.568000 0.629131 -0.770979 -0.098920
3.106000 0.192000 -0.559000 0.624423 -0.774206 -0.103443
3.109000 0.190000 -0.550000 0.617789 -0.779031 -0.106989
3.103000 0.187000 -0.539000 0.606384 -0.788204 -0.105039
3.100000 0.184000 -0.528000 0.589927 -0.800631 -0.104770
3.091000 0.180000 -0.517000 0.580301 -0.806615 -0.112356
3.091000 0.177000 -0.507000 0.570101 -0.812829 -0.119560
3.087000 0.174000 -0.497000 0.544693 -0.829497 -0.123469
3.085000 0.171000 -0.487000 0.531389 -0.837378 -0.128156
3.086000 0.168000 -0.477000 0.516956 -0.844870 -0.137665
3.082000 0.165000 -0.467000 0.506648 -0.849216 -0.148794
3.077000 0.162000 -0.456000 0.467254 -0.868925 -0.163226
3.077000 0.159000 -0.447000 0.467187 -0.868138 -0.167545
3.079000 0.156000 -0.437000 0.470028 -0.866566 -0.167740
3.066000 0.152000 -0.426000 0.447632 -0.876219 -0.178510
3.066000 0.149000 -0.416000 0.414780 -0.888678 -0.195471
3.067000 0.146000 -0.407000 0.404330 -0.891614 -0.203818
3.065000 0.143000 -0.397000 0.384196 -0.897349 -0.217158
3.060000 0.140000 -0.387000 0.352826 -0.906826 -0.230609
3.063000 0.137000 -0.378000 0.326758 -0.914744 -0.237639
3.057000 0.134000 -0.367000 0.287858 -0.923716 -0.252758
3.054000 0.130000 -0.358000 0.254028 -0.929830 -0.266245
3.050000 0.127000 -0.348000 0.203977 -0.936976 -0.283672
3.048000 0.124000 -0.338000 0.125679 -0.942767 -0.308860
3.049000 0.121000 -0.329000 0.052040 -0.942221 -0.330924
3.045000 0.117000 -0.319000 0.038363 -0.941133 -0.335851
3.043000 0.114000 -0.309000 -0.008134 -0.937387 -0.348194
3.037000 0.111000 -0.299000 -0.060464 -0.930737 -0.360657
3.035000 0.108000 -0.290000 -0.075649 -0.928746 -0.362915
3.033000 0.104000 -0.280000 -0.104590 -0.923723 -0.368505
3.030000 0.101000 -0.271000 -0.091215 -0.926695 -0.364576
3.030000 0.098000 -0.261000 0.009039 -0.938946 -0.343945
3.030000 0.094000 -0.252000 0.276454 -0.923120 -0.267250
3.026000 0.091000 -0.242000 0.400887 -0.888714 -0.222434
3.024000 0.088000 -0.233000 0.100195 -0.942907 -0.317627
3.022000 0.084000 -0.223000 0.241438 -0.930266 -0.276247
3.023000 0.081000 -0.214000 0.755763 -0.654668 -0.015230
3.019000 0.078000 -0.204000 0.790938 -0.611594 0.019254
3.012000 0.074000 -0.195000 0.795004 -0.605194 0.041333
3.010000 0.071000 -0.186000 0.798736 -0.594109 0.095161
3.007000 0.067000 -0.176000 0.769576 -0.627192 0.119929
3.000000 0.064000 -0.167000 0.766855 -0.627994 0.132499
2.999000 0.060000 -0.158000 0.751857 -0.638208 0.165534
2.996000 0.057000 -0.148000 0.766347 -0.614747 0.186541
2.992000 0.054000 -0.139000 0.764515 -0.614657 0.194199
2.777000 0.046000 -0.121000 0.106314 0.061555 0.992425
2.600000 0.041000 -0.105000 0.966324 0.039348 0.254302
2.594000 0.037000 -0.097000 0.985630 -0.168896 0.002699
2.603000 0.035000 -0.089000 0.972147 0.103257 0.210398
2.612000 0.032000 -0.082000 0.936665 0.343353 0.069040
2.616000 0.029000 -0.074000 0.844412 0.534350 -0.037925
2.620000 0.026000 -0.066000 0.817683 0.566988 0.099600
2.620000 0.023000 -0.058000 0.750334 0.657389 0.069561
2.622000 0.019000 -0.050000 -0.684291 -0.729065 0.014497
2.624000 0.016000 -0.042000 -0.699735 -0.711464 0.064730
2.630000 0.013000 -0.035000 -0.645773 -0.757516 0.095642
2.637000 0.010000 -0.027000 -0.639244 -0.764659 0.081631
2.644000 0.007000 -0.019000 -0.567944 -0.822185 0.038103
2.647000 0.004000 -0.011000 -0.506961 -0.861969 0.000521
2.650000 0.001000 -0.003000 -0.460322 -0.885472 -0.063578
2.651000 -0.002000 0.004000 -0.182604 -0.956011 -0.229561
2.654000 -0.005000 0.012000 -0.566462 -0.823154 0.039227
2.666000 -0.008000 0.020000 -0.619930 -0.773351 0.132722
2.670000 -0.011000 0.028000 -0.648025 -0.696605 0.307905
2.676000 -0.015000 0.036000 -0.567121 -0.733845 0.373960
2.730000 -0.018000 0.045000 0.724494 0.361447 -0.586911
2.739000 -0.022000 0.053000 0.981906 0.023919 -0.187850
2.734000 -0.025000 0.061000 0.993994 -0.099146 -0.046324
2.726000 -0.029000 0.069000 0.970603 -0.176366 0.163784
2.721000 -0.032000 0.077000 0.940087 -0.302533 0.157196
2.715000 -0.035000 0.085000 0.941182 -0.311931 0.129905
2.715000 -0.039000 0.093000 0.967677 -0.214557 0.132536
2.711000 -0.042000 0.101000 0.981272 -0.156667 0.112077
2.708000 -0.046000 0.109000 0.994659 -0.011460 0.102577
2.707000 -0.049000 0.117000 0.987284 0.084113 0.134889
2.705000 -0.053000 0.125000 0.967793 0.236346 0.086702
2.709000 -0.056000 0.134000 0.959616 0.274220 0.062777
2.713000 -0.060000 0.142000 0.909722 0.393487 0.132564
2.716000 -0.064000 0.150000 0.854191 0.494480 0.160771
2.719000 -0.067000 0.158000 0.817616 0.542678 0.192366
2.726000 -0.071000 0.167000 0.751838 0.633765 0.181884
2.730000 -0.075000 0.175000 0.744398 0.647112 0.164676
2.694000 -0.077000 0.181000 0.946441 0.210341 0.244961
2.560000 -0.077000 0.179000 -0.396877 -0.493579 -0.773866
2.487000 -0.078000 0.181000 0.559585 -0.759153 0.332494
2.485000 -0.081000 0.189000 0.591101 -0.757185 0.277977
2.483000 -0.085000 0.196000 0.599479 -0.764747 0.236192
2.484000 -0.088000 0.203000 0.619872 -0.758570 0.200821
2.482000 -0.091000 0.211000 0.619872 -0.758570 0.200821
2.481000 -0.095000 0.218000 -0.633617 0.751642 -0.183206
2.474000 -0.098000 0.225000 0.805216 -0.587482 0.080572
2.474000 -0.101000 0.232000 0.813939 -0.571481 0.104466
2.466000 -0.104000 0.238000 0.802058 -0.596016 0.038297
2.464000 -0.108000 0.245000 0.802058 -0.596016 0.038297
2.460000 -0.111000 0.252000 0.798590 -0.600430 0.041689
2.459000 -0.114000 0.259000 0.785056 -0.619065 0.021082
2.457000 -0.118000 0.266000 0.776489 -0.615080 0.136900
2.454000 -0.121000 0.273000 0.782202 -0.606949 0.140620
2.452000 -0.125000 0.280000 0.755821 -0.647921 0.094515
2.449000 -0.128000 0.287000 0.760866 -0.642314 0.092282
2.448000 -0.131000 0.294000 0.768702 -0.634678 0.079249
2.445000 -0.135000 0.301000 0.788039 -0.613155 0.055093
2.439000 -0.138000 0.307000 0.798142 -0.601126 0.040224
2.410000 -0.140000 0.311000 0.719034 -0.164451 0.675238
2.326000 -0.138000 0.307000 -0.606226 -0.564383 -0.560323
2.307000 -0.141000 0.311000 0.674378 0.592302 0.440900
2.302000 -0.144000 0.317000 0.679944 0.617280 0.395779
2.306000 -0.147000 0.325000 0.675455 0.639362 0.367392
2.305000 -0.151000 0.331000 0.675382 0.653234 0.342263
2.315000 -0.155000 0.339000 0.676621 0.652251 0.341691
2.319000 -0.159000 0.347000 0.674100 0.667994 0.315234
2.310000 -0.162000 0.352000 0.669037 0.670072 0.321549
2.319000 -0.166000 0.360000 0.673878 0.689445 0.265618
2.324000 -0.170000 0.368000 0.673977 0.700492 0.234661
2.325000 -0.173000 0.375000 0.668374 0.713018 0.211852
2.329000 -0.177000 0.382000 -0.597398 -0.785300 -0.162540
2.332000 -0.181000 0.390000 -0.597398 -0.785300 -0.162540
2.335000 -0.185000 0.397000 -0.591704 -0.794913 -0.134164
2.340000 -0.189000 0.405000 -0.632658 -0.774408 -0.006030
2.341000 -0.193000 0.411000 0.648232 0.760843 -0.030225
2.349000 -0.197000 0.420000 -0.630998 -0.775560 0.018633
2.353000 -0.201000 0.427000 -0.640897 -0.765841 0.052332
2.359000 -0.205000 0.435000 -0.628224 -0.773860 0.080462
2.357000 -0.209000 0.442000 -0.629811 -0.770078 0.101582
2.371000 -0.214000 0.451000 0.610807 0.789738 -0.056818
2.401000 -0.221000 0.464000 0.633429 0.771540 -0.059114
2.399000 -0.224000 0.471000 0.633763 0.768937 -0.084148
2.403000 -0.228000 0.478000 0.633329 0.765197 -0.115617
2.424000 -0.235000 0.490000 0.604891 0.736502 -0.302773
2.512000 -0.247000 0.515000 0.872427 -0.257511 -0.415403
2.543000 -0.254000 0.528000 0.855785 -0.512516 -0.070424
2.540000 -0.258000 0.535000 0.869500 -0.488785 -0.071128
2.534000 -0.262000 0.541000 0.887558 -0.452034 -0.088912
2.534000 -0.266000 0.549000 0.902692 -0.409213 -0.133013
2.529000 -0.270000 0.555000 0.904447 -0.404637 -0.135068
2.523000 -0.274000 0.561000 0.904447 -0.404637 -0.135068
2.521000 -0.278000 0.568000 0.928884 -0.323921 -0.179583
2.518000 -0.282000 0.574000 0.930792 -0.331810 -0.153387
2.513000 -0.285000 0.580000 0.940964 -0.327126 -0.087032
2.510000 -0.289000 0.587000 0.960565 -0.272774 -0.053928
2.509000 -0.293000 0.594000 0.972946 -0.230633 0.013594
2.506000 -0.297000 0.600000 0.971894 -0.230675 -0.047029
2.500000 -0.301000 0.606000 0.987566 -0.128332 -0.090800
2.511000 -0.307000 0.616000 0.996059 -0.022112 -0.085887
2.527000 -0.313000 0.627000 0.965835 0.235330 -0.108546
2.525000 -0.317000 0.634000 0.965835 0.235330 -0.108546
2.521000 -0.321000 0.640000 0.952266 0.264037 -0.153213
2.502000 -0.324000 0.642000 0.951265 0.264127 -0.159158
2.491000 -0.326000 0.647000 0.959637 0.256473 -0.115403
2.506000 -0.333000 0.658000 0.906898 0.385694 -0.169633
6.403000 -0.863000 1.699000 0.024660 -0.841268 -0.540056
6.420000 -0.877000 1.722000 0.025725 -0.841057 -0.540334
6.421000 -0.889000 1.740000 0.046097 -0.840418 -0.539975
6.412000 -0.899000 1.756000 0.046097 -0.840418 -0.539975
6.409000 -0.911000 1.774000 0.046097 -0.840418 -0.539975
6.405000 -0.922000 1.791000 -0.043122 0.841219 0.538972
6.354000 -0.927000 1.794000 -0.044383 0.842830 0.536347
6.314000 -0.933000 1.801000 -0.065339 0.910905 0.407409
6.204000 -0.928000 1.787000 0.035253 -0.825145 -0.563821
6.122000 -0.927000 1.780000 0.035177 -0.824400 -0.564914
6.116000 -0.938000 1.796000 0.035177 -0.824400 -0.564914
6.123000 -0.951000 1.816000 0.035177 -0.824400 -0.564914
6.154000 -0.968000 1.842000 0.035177 -0.824400 -0.564914
6.144000 -0.978000 1.856000 0.908170 0.007295 -0.418537
6.372000 -1.027000 1.943000 -0.039213 0.817765 0.574214
6.396000 -1.043000 1.968000 -0.580739 0.067862 -0.811256
6.327000 -1.044000 1.965000 -0.039213 0.817765 0.574214
6.348000 -1.060000 1.989000 -0.594668 -0.199404 -0.778851
6.323000 -1.068000 1.998000 -0.596962 0.128124 -0.791973
6.165000 -1.054000 1.966000 0.461144 -0.196595 -0.865272
6.213000 -1.074000 1.998000 0.136679 0.950931 -0.277577
6.296000 -1.101000 2.042000 -0.052880 -0.524542 -0.849741
6.255000 -1.107000 2.046000 -0.233905 -0.529078 -0.815699
6.205000 -1.110000 2.047000 -0.085785 0.912810 0.399273
6.163000 -1.115000 2.050000 -0.351175 0.856670 0.377879
6.143000 -1.124000 2.060000 -0.010955 0.918698 0.394809
6.143000 -1.137000 2.077000 0.079250 0.775409 0.626466
6.120000 -1.145000 2.086000 -0.148883 -0.409524 -0.900069
6.065000 -1.147000 2.083000 -0.065591 -0.435254 -0.897915
6.021000 -1.151000 2.085000 0.021308 -0.448612 -0.893473
5.971000 -1.154000 2.084000 0.021459 -0.587115 -0.809219
5.930000 -1.159000 2.086000 0.014454 -0.655932 -0.754682
5.884000 -1.162000 2.085000 -0.029199 0.947648 0.317979
5.837000 -1.165000 2.084000 -0.038978 0.951648 -0.304707
5.804000 -1.171000 2.088000 -0.062537 0.895654 -0.440332
5.758000 -1.174000 2.087000 -0.008956 0.578331 -0.815753
5.711000 -1.176000 2.085000 0.000793 0.325585 -0.945512
5.678000 -1.182000 2.088000 0.020875 0.308169 -0.951103
5.640000 -1.186000 2.089000 -0.005294 0.263430 -0.964664
5.585000 -1.187000 2.083000 0.012207 0.257149 -0.966295
5.550000 -1.191000 2.085000 0.015159 0.257635 -0.966123
5.506000 -1.193000 2.083000 -0.014328 0.247316 -0.968829
5.466000 -1.197000 2.082000 -0.027258 0.219520 -0.975227
5.436000 -1.202000 2.085000 0.026039 -0.186663 0.982079
5.404000 -1.207000 2.086000 -0.024188 0.179798 -0.983406
5.365000 -1.210000 2.085000 0.009253 -0.142001 0.989823
5.332000 -1.215000 2.086000 0.010200 0.142077 -0.989803
5.292000 -1.217000 2.084000 -0.003960 -0.139923 0.990154
5.254000 -1.220000 2.082000 0.086041 -0.701898 -0.707061
5.225000 -1.225000 2.084000 -0.096735 0.757527 0.645596
5.185000 -1.228000 2.081000 -0.100230 0.778426 0.619684
5.157000 -1.233000 2.083000 -0.092795 0.737450 0.668996
5.128000 -1.238000 2.084000 -0.094806 0.732657 0.673962
5.095000 -1.241000 2.083000 -0.093711 0.717280 0.690455
5.060000 -1.244000 2.082000 0.069526 -0.504666 -0.860511
5.031000 -1.249000 2.082000 0.063159 -0.425655 -0.902679
5.001000 -1.253000 2.082000 0.086441 -0.626371 -0.774718
4.971000 -1.256000 2.082000 0.086967 -0.615721 -0.783150
4.942000 -1.260000 2.081000 0.089254 -0.629758 -0.771646
4.923000 -1.267000 2.085000 0.089180 -0.605669 -0.790703
4.892000 -1.271000 2.084000 0.107115 -0.668028 -0.736387
4.860000 -1.273000 2.082000 0.110040 -0.679643 -0.725242
4.844000 -1.281000 2.086000 0.108511 -0.650591 -0.751636
4.804000 -1.281000 2.080000 0.108511 -0.623945 -0.773898
4.774000 -1.285000 2.079000 0.113062 -0.650752 -0.750825
4.756000 -1.291000 2.082000 0.116402 -0.651386 -0.749764
4.735000 -1.297000 2.083000 -0.143175 0.760229 0.633681
4.709000 -1.301000 2.083000 0.124360 -0.672041 -0.729997
4.689000 -1.306000 2.085000 -0.133686 0.692541 0.708883
4.661000 -1.310000 2.082000 0.128551 -0.664386 -0.736252
4.642000 -1.315000 2.085000 0.126155 -0.644005 -0.754548
4.626000 -1.322000 2.087000 -0.149905 0.720449 0.677113
4.600000 -1.326000 2.086000 -0.154560 0.725441 0.670706
4.578000 -1.330000 2.086000 -0.154707 0.717126 0.679556
4.558000 -1.336000 2.087000 0.139692 -0.615717 -0.775486
4.529000 -1.338000 2.083000 0.137762 -0.604767 -0.784397
4.509000 -1.343000 2.083000 0.149120 -0.631378 -0.761003
4.492000 -1.349000 2.085000 0.151419 -0.624436 -0.766259
4.471000 -1.353000 2.084000 0.153946 -0.628050 -0.762794
4.453000 -1.358000 2.085000 -0.174827 0.684989 0.707266
4.441000 -1.366000 2.089000 -0.179414 0.692350 0.698901
4.413000 -1.368000 2.084000 -0.189805 0.713501 0.674456
4.404000 -1.375000 2.088000 0.177568 -0.648267 -0.740419
4.382000 -1.379000 2.087000 0.164288 -0.579692 -0.798102
4.361000 -1.383000 2.085000 0.166978 -0.571925 -0.803131
4.345000 -1.389000 2.086000 0.168253 -0.560518 -0.810870
4.325000 -1.393000 2.084000 0.174649 -0.571130 -0.802065
4.315000 -1.400000 2.087000 0.173722 -0.558047 -0.811421
4.298000 -1.405000 2.087000 0.199076 -0.617495 -0.760966
4.290000 -1.413000 2.091000 0.213914 -0.653488 -0.726081
4.267000 -1.415000 2.087000 0.208110 -0.614529 -0.760950
4.251000 -1.421000 2.087000 0.203112 -0.587725 -0.783151
4.240000 -1.427000 2.089000 0.196621 -0.550445 -0.811388
4.215000 -1.429000 2.084000 0.189984 -0.505697 -0.841533
4.198000 -1.434000 2.082000 0.192926 -0.498051 -0.845414
4.188000 -1.440000 2.085000 0.219838 -0.550062 -0.805669
4.180000 -1.448000 2.087000 0.211393 -0.517364 -0.829245
4.167000 -1.453000 2.088000 0.204925 -0.485253 -0.850021
4.154000 -1.459000 2.087000 0.198505 -0.451122 -0.870106
4.140000 -1.463000 2.087000 0.215359 -0.473687 -0.853956
4.131000 -1.470000 2.089000 0.215359 -0.473687 -0.853956
4.114000 -1.474000 2.086000 0.263831 -0.546219 -0.795008
4.097000 -1.478000 2.083000 0.209531 -0.408836 -0.888229
4.092000 -1.486000 2.086000 0.206639 -0.395314 -0.895001
4.085000 -1.493000 2.088000 0.193861 -0.352257 -0.915605
4.075000 -1.499000 2.089000 0.205322 -0.368544 -0.906652
4.066000 -1.505000 2.089000 0.208926 -0.364489 -0.907468
4.053000 -1.510000 2.088000 0.257515 -0.421402 -0.869544
4.039000 -1.514000 2.086000 0.294309 -0.462002 -0.836622
4.025000 -1.518000 2.083000 0.264149 -0.391931 -0.881258
4.022000 -1.526000 2.086000 0.274601 -0.400326 -0.874261
4.015000 -1.533000 2.087000 0.228206 -0.307383 -0.923817
4.005000 -1.538000 2.087000 0.193825 -0.228268 -0.954110
4.002000 -1.547000 2.089000 0.188640 -0.212128 -0.958862
3.986000 -1.549000 2.084000 0.206060 -0.219345 -0.953639
3.973000 -1.553000 2.081000 0.200282 -0.200451 -0.959013
3.970000 -1.561000 2.084000 0.194459 -0.192464 -0.961844
3.961000 -1.566000 2.083000 0.198182 -0.185499 -0.962452
3.959000 -1.574000 2.085000 0.193885 -0.171624 -0.965895
3.946000 -1.578000 2.081000 0.175911 -0.150371 -0.972854
3.939000 -1.584000 2.081000 0.192252 -0.151308 -0.969611
3.937000 -1.591000 2.082000 0.178653 -0.135183 -0.974581
3.936000 -1.599000 2.085000 0.183135 -0.128351 -0.974673
3.920000 -1.601000 2.079000 0.168060 -0.110692 -0.979542
3.922000 -1.610000 2.082000 0.106556 -0.066504 -0.992080
3.924000 -1.619000 2.086000 0.085344 -0.049398 -0.995126
3.916000 -1.624000 2.084000 0.068194 -0.034045 -0.997091
3.910000 -1.630000 2.083000 0.083454 -0.031230 -0.996022
3.912000 -1.638000 2.086000 0.253760 -0.101741 -0.961902
3.899000 -1.641000 2.080000 0.456199 -0.194786 -0.868298
3.902000 -1.650000 2.083000 0.521558 -0.217766 -0.824957
3.903000 -1.658000 2.086000 0.540225 -0.216707 -0.813139
3.900000 -1.664000 2.085000 0.552602 -0.222817 -0.803109
3.898000 -1.671000 2.085000 0.550151 -0.209974 -0.808235
3.893000 -1.676000 2.083000 0.545838 -0.197320 -0.814325
3.884000 -1.680000 2.079000 0.542750 -0.183501 -0.819603
3.890000 -1.689000 2.082000 0.544101 -0.172760 -0.821041
3.895000 -1.699000 2.085000 0.536899 -0.159749 -0.828384
3.889000 -1.703000 2.082000 0.536899 -0.159749 -0.828384
3.886000 -1.709000 2.081000 0.530893 -0.144116 -0.835095
3.885000 -1.715000 2.080000 0.530126 -0.131606 -0.837644
3.872000 -1.716000 2.073000 0.526763 -0.118666 -0.841688
3.860000 -1.717000 2.066000 0.522802 -0.106825 -0.845734
3.846000 -1.717000 2.058000 0.521240 -0.095876 -0.848007
3.838000 -1.720000 2.053000 0.515968 -0.082902 -0.852587
3.829000 -1.722000 2.047000 0.508754 -0.056264 -0.859072
3.730000 -1.683000 1.992000 0.622802 0.365369 -0.691826
3.694000 -1.673000 1.972000 0.676327 0.350143 -0.648060
3.725000 -1.692000 1.987000 0.642119 0.363031 -0.675197
3.725000 -1.698000 1.985000 0.676327 0.350143 -0.648060
3.717000 -1.700000 1.979000 0.686265 0.352520 -0.636215
3.723000 -1.708000 1.981000 0.686265 0.352520 -0.636215
3.706000 -1.705000 1.969000 0.686265 0.352520 -0.636215
3.713000 -1.713000 1.971000 0.686265 0.352520 -0.636215
3.729000 -1.725000 1.977000 0.686265 0.352520 -0.636215
3.711000 -1.722000 1.965000 0.686265 0.352520 -0.636215
3.714000 -1.727000 1.963000 0.686265 0.352520 -0.636215
3.711000 -1.731000 1.959000 0.686265 0.352520 -0.636215
3.714000 -1.736000 1.958000 0.686265 0.352520 -0.636215
3.716000 -1.742000 1.955000 0.686265 0.352520 -0.636215
3.714000 -1.744000 1.951000 0.686265 0.352520 -0.636215
3.706000 -1.745000 1.943000 0.686265 0.352520 -0.636215
3.700000 -1.745000 1.936000 0.686265 0.352520 -0.636215
3.701000 -1.750000 1.933000 0.686265 0.352520 -0.636215
3.695000 -1.750000 1.926000 0.688192 0.366847 -0.625952
3.682000 -1.747000 1.915000 0.689942 0.375148 -0.619068
3.684000 -1.751000 1.912000 0.689942 0.375148 -0.619068
3.691000 -1.758000 1.911000 0.683606 0.395189 -0.613603
3.802000 -1.813000 1.963000 0.519674 0.818277 -0.245686
3.875000 -1.852000 1.996000 0.513863 0.818493 -0.256931
3.890000 -1.861000 1.999000 -0.495506 -0.831459 0.251296
3.912000 -1.874000 2.005000 -0.495007 -0.831578 0.251885
3.896000 -1.869000 1.991000 -0.495506 -0.831459 0.251296
3.784000 -1.818000 1.929000 0.538918 0.821089 -0.188098
3.799000 -1.827000 1.930000 0.534265 0.822200 -0.196336
3.788000 -1.823000 1.919000 0.538851 0.824917 -0.170739
3.851000 -1.855000 1.945000 0.514340 0.822465 -0.242911
3.876000 -1.869000 1.952000 0.515478 0.823270 -0.237715
3.848000 -1.857000 1.932000 0.514340 0.822465 -0.242911
3.837000 -1.854000 1.920000 0.515131 0.821722 -0.243748
3.915000 -1.892000 1.952000 -0.495506 -0.831459 0.251296
3.934000 -1.902000 1.955000 -0.495007 -0.831578 0.251885
3.915000 -1.894000 1.939000 -0.495506 -0.831459 0.251296
3.941000 -1.907000 1.945000 0.493795 0.831931 -0.253097
3.828000 -1.853000 1.882000 0.428499 0.901412 -0.061999
3.760000 -1.821000 1.841000 0.424263 0.903960 -0.053447
3.773000 -1.827000 1.841000 -0.386184 -0.921219 0.047092
3.770000 -1.826000 1.832000 -0.390684 -0.919731 0.038225
3.769000 -1.825000 1.825000 0.366930 0.930247 -0.001565
3.778000 -1.830000 1.822000 -0.365997 -0.930615 0.001466
3.784000 -1.832000 1.817000 -0.374908 -0.924855 -0.063935
3.783000 -1.831000 1.809000 -0.374908 -0.924855 -0.063935
3.773000 -1.825000 1.796000 0.375577 0.924494 0.065217
3.782000 -1.829000 1.793000 0.375577 0.924494 0.065217
3.783000 -1.828000 1.785000 0.375577 0.924494 0.065217
3.807000 -1.839000 1.789000 0.368912 0.927127 0.065879
3.784000 -1.826000 1.770000 0.375577 0.924494 0.065217
3.839000 -1.851000 1.787000 0.366144 0.927986 0.069134
3.856000 -1.858000 1.787000 0.363494 0.928453 0.076471
3.849000 -1.853000 1.775000 0.367700 0.925032 0.095462
3.879000 -1.866000 1.780000 0.356938 0.921167 0.155070
3.877000 -1.863000 1.771000 0.356938 0.921167 0.155070
3.932000 -1.887000 1.787000 0.355394 0.921300 0.157801
4.013000 -1.923000 1.814000 0.316096 0.908387 0.273710
4.067000 -1.947000 1.830000 0.306638 0.907181 0.288090
4.090000 -1.955000 1.831000 0.306638 0.907181 0.288090
4.085000 -1.950000 1.819000 0.306638 0.907181 0.288090
4.067000 -1.938000 1.801000 0.306638 0.907181 0.288090
4.112000 -1.956000 1.811000 0.299500 0.910712 0.284436
4.149000 -1.970000 1.817000 0.290483 0.905995 0.307883
4.218000 -1.999000 1.837000 0.284273 0.894970 0.343828
4.257000 -2.015000 1.844000 0.294990 0.893167 0.339462
